# .PCD v0.7 - Point Cloud Data file format
VERSION 0.7
FIELDS x y z
SIZE 4 4 4
TYPE F F F
COUNT 1 1 1
WIDTH 2046
HEIGHT 1
VIEWPOINT 0 0 0 1 0 0 0
POINTS 2046
DATA ascii
-46.577877 5 -5.2029967
-46.179672 5 -5.2850227
-45.840038 5 -5.238008
-45.323624 5 -5.1373167
-44.687481 5 -5.3199143
-43.871937 5 -5.3391232
-43.104942 5 -5.1103964
-42.751568 5 -5.389441
-41.56213 5 -5.4272261
-40.788109 5 -5.086905
-40.257362 5 -5.2176766
-39.169071 5 -5.1987462
-38.795002 5 -5.2722793
-38.024899 5 -5.4528584
-37.685535 5 -5.097157
-37.127186 5 -5.4723158
-36.769455 5 -5.4973412
-36.34428 5 -5.0395794
-35.683529 5 -5.0414433
-34.403187 5 -5.1018791
-33.762238 5 -5.2739286
-33.30011 5 -5.3726387
-32.710541 5 -5.4045572
-32.325691 5 -5.193058
-31.656681 5 -5.2943764
-31.378609 5 -5.4972
-30.585918 5 -5.2812767
-29.232683 5 -5.1013951
-28.765148 5 -5.2562943
-28.44433 5 -5.0253229
-27.736748 5 -5.0133753
-27.492388 5 -5.4703798
-26.170538 5 -5.4918346
-25.093565 5 -5.37393
-24.843716 5 -5.2528133
-24.241821 5 -5.2105832
-23.737417 5 -5.2789125
-22.139948 5 -5.1909318
-21.791508 5 -5.1944237
-21.438837 5 -5.4355378
-20.608131 5 -5.247231
-20.473454 5 -5.1071634
-19.865192 5 -5.2823491
-19.344765 5 -5.1064482
-18.334488 5 -5.259201
-17.744783 5 -5.1283398
-17.16003 5 -5.2230163
-16.376842 5 -5.2922578
-15.727509 5 -5.3727016
-15.241251 5 -5.2358251
-14.744686 5 -5.3128762
-14.204416 5 -5.0207133
-13.218525 5 -5.1545796
-12.503712 5 -5.3042321
-12.132471 5 -5.1494718
-11.639589 5 -5.4482584
-10.744976 5 -5.428277
-10.165899 5 -5.2386909
-9.6279774 5 -5.0759668
-8.7512827 5 -5.2695436
-8.1764688 5 -5.204586
-7.9659591 5 -5.0114145
-7.0866289 5 -5.3362494
-6.0615702 5 -5.1580286
-5.2959914 5 -5.2092209
-4.9839544 5 -5.1154928
-3.8460236 5 -5.2403822
-3.3174238 5 -5.2928576
-2.7075691 5 -5.3081417
-2.2024815 5 -5.0395422
-1.7567744 5 -5.439703
0.028080449 5 -5.4571562
0.64646083 5 -5.2434597
1.2927103 5 -5.0318317
2.2662609 5 -5.2640748
2.8044951 5 -5.1079626
3.3745291 5 -5.3149238
3.6934493 5 -5.2997093
5.7453709 5 -5.2218065
6.8118095 5 -5.154305
7.7838073 5 -5.1177988
9.178071 5 -5.2912536
9.5152931 5 -5.4943175
10.489693 5 -5.3615146
10.922963 5 -5.1751275
11.760883 5 -5.1720514
12.133452 5 -5.4414215
12.785112 5 -5.3745165
13.212803 5 -5.315968
13.612038 5 -5.387105
14.359895 5 -5.3689232
14.683512 5 -5.0497422
15.334517 5 -5.0953808
15.994169 5 -5.1300511
16.349169 5 -5.2235847
16.513849 5 -5.1750984
17.325184 5 -5.0462861
17.800442 5 -5.2799044
18.936998 5 -5.4633107
19.081657 5 -5.2098656
19.946922 5 -5.4095421
20.238907 5 -5.095036
21.35161 5 -5.3622069
21.78014 5 -5.3218842
22.141947 5 -5.1546211
23.488087 5 -5.1802011
23.808798 5 -5.2913332
24.326019 5 -5.175456
24.881231 5 -5.0266438
25.535778 5 -5.2428398
26.34057 5 -5.4191999
26.703745 5 -5.2703519
27.109232 5 -5.2680326
28.430807 5 -5.49859
29.045397 5 -5.1561046
29.77301 5 -5.2805805
30.252853 5 -5.2818227
31.184738 5 -5.2549944
32.190449 5 -5.3933058
32.916466 5 -5.0667033
33.378738 5 -5.1631393
33.761753 5 -5.0898204
34.324501 5 -5.3329725
34.511757 5 -5.3349977
35.670906 5 -5.3397541
36.327179 5 -5.1290731
36.729446 5 -5.3926477
37.212048 5 -5.3177385
37.817036 5 -5.0994196
38.277416 5 -5.3066487
38.845348 5 -5.3390331
39.249886 5 -5.4267864
40.330154 5 -5.2146058
40.661907 5 -5.3423676
41.79797 5 -5.3330965
42.282112 5 -5.1466503
43.396744 5 -5.2909927
44.939991 5 -5.2765846
45.075676 5 -5.1753144
45.854771 5 -5.3787756
46.855545 5 -5.1642599
47.381336 5 -5.2374849
48.224487 5 -5.2216382
48.823154 5 -5.3712602
49.748711 5 -5.1428566
50.13855 5 -5.3101697
51.194664 5 -5.1556706
52.921062 5 -5.4253035
53.443363 5 -5.0652294
53.762302 5 -5.1682405
54.491833 5 -5.477572
55.319195 5 -5.161087
55.745216 5 -5.2767019
56.322723 5 -5.0824594
57.314907 5 -5.2442117
58.781895 5 -5.4999828
59.220234 5 -5.3556004
60.875015 5 -5.3821101
61.299568 5 -5.2605705
61.751709 5 -5.1411061
62.207844 5 -5.036922
62.62484 5 -5.2667303
63.275192 5 -5.1358128
63.733551 5 -5.2522435
64.001808 5 -5.0566292
64.756294 5 -5.268878
-64.952484 0.15237862 -4.7778296
-64.009949 0 -4.7912073
-63.538815 0 -4.6033716
-63.286724 0 -4.9826484
-62.541759 0 -4.9463778
-62.308727 0 -4.7553716
-60.98703 0 -4.687921
-60.207706 0 -4.6923966
-58.61618 0 -4.6298237
-57.602921 0 -4.5759335
-57.39677 0 -4.893322
-56.453453 0 -4.7736254
-55.647415 0 -4.8836632
-54.823692 0 -4.7904358
-54.163975 0 -4.8161116
-53.718819 0 -4.9166932
-53.083961 0 -4.5948215
-52.808628 0 -4.7571144
-52.226944 0 -4.8127608
-51.606159 0 -4.5172668
-51.352776 0 -4.7242994
-50.033409 0 -4.8410554
-49.349915 0 -4.6710696
-48.344349 0 -4.9040165
-47.845703 0 -4.7732372
-46.68652 0 -4.7120037
-46.34584 0 -4.7115407
-45.757832 0 -4.5357814
-45.231956 0 -4.6042318
-44.554783 0 -4.6922812
-43.637352 0 -4.5109525
-43.434559 0 -4.9561934
-42.875565 0 -4.7000713
-42.046913 0 -4.6691098
-41.366852 0 -4.8698726
-40.61734 0 -4.9416151
-40.359196 0 -4.5832944
-39.08873 0 -4.5634995
-38.648689 0 -4.703516
-37.123035 0 -4.5400429
-36.228634 0 -4.7510753
-35.947601 0 -4.8799467
-35.278587 0 -4.942018
-34.336266 0 -4.7311363
-33.601921 0 -4.9263964
-32.824951 0 -4.9686041
-31.661421 0 -4.5159941
-31.270508 0 -4.5804729
-29.770617 0 -4.6430988
-29.164495 0 -4.6541915
-28.946472 0 -4.7407589
-27.284136 0 -4.8768816
-26.756769 0 -4.7593594
-26.452679 0 -4.8775387
-25.89488 0 -4.874157
-25.011238 0 -4.7044134
-24.824926 0 -4.6483135
-24.210691 0 -4.9809027
-23.119892 0 -4.7606087
-22.553017 0 -4.6820068
-22.488306 0 -4.8955307
-21.797991 0 -4.7181201
-20.67988 0 -4.7114515
-19.894793 0 -4.8514524
-19.316509 0 -4.6044531
-18.678299 0 -4.8731122
-18.261021 0 -4.9138823
-17.284231 0 -4.7578206
-16.759073 0 -4.7976823
-16.19466 0 -4.9648328
-15.706943 0 -4.7755742
-15.328116 0 -4.7094817
-14.716205 0 -4.7365308
-14.359463 0 -4.6579533
-13.300967 0 -4.5665741
-12.611238 0 -4.8838549
-12.165404 0 -4.7334547
-11.653769 0 -4.6579413
-10.195872 0 -4.5671911
-9.5846491 0 -4.6647081
-9.2147207 0 -4.8253365
-8.0793982 0 -4.8496804
-7.8030219 0 -4.8506899
-6.7910805 0 -4.9724736
-6.156353 0 -4.723268
-5.8007445 0 -4.9184303
-5.4554806 0 -4.5378256
-4.3655386 0 -4.80479
-3.5410147 0 -4.8487945
-3.3969367 0 -4.6550822
-2.6178305 0 -4.8281403
-1.7148087 0 -4.6559534
-1.4810443 0 -4.9885073
-0.615107 0 -4.6982517
0.2710681 0 -4.5472755
1.0601363 0 -4.5741882
2.2396297 0 -4.8516335
2.7744389 0 -4.8615842
3.8931675 0 -4.7956161
4.1912193 0 -4.6046915
4.9535594 0 -4.9429517
5.2864318 0 -4.7471352
5.9239979 0 -4.6078587
6.4393206 0 -4.8368964
6.8247261 0 -4.7450051
7.1265836 0 -4.7274957
7.9496326 0 -4.8575277
8.052206 0 -4.8326178
9.1899757 0 -4.904304
10.198153 0 -4.9560232
10.772217 0 -4.6187944
11.118361 0 -4.7792478
12.120412 0 -4.7288589
12.924736 0 -4.9302216
14.214608 0 -4.9303226
14.615971 0 -4.649693
16.427853 0 -4.6767077
16.776569 0 -4.7535954
17.753551 0 -4.5354977
19.553041 0 -4.6775379
20.127371 0 -4.7379665
20.743086 0 -4.559845
21.139011 0 -4.9625978
22.403873 0 -4.7829475
23.707401 0 -4.7638297
24.271957 0 -4.7404308
25.971981 0 -4.6523247
26.263317 0 -4.577034
26.778101 0 -4.6678581
27.13212 0 -4.8979602
27.651356 0 -4.6018524
28.424313 0 -4.800724
28.593073 0 -4.7814965
29.59004 0 -4.9130487
30.812538 0 -4.8279409
31.465096 0 -4.6226535
31.882078 0 -4.7155809
32.156811 0 -4.7365818
33.344013 0 -4.658112
33.708466 0 -4.7610559
34.28241 0 -4.8347797
34.753815 0 -4.8606386
35.450691 0 -4.5374899
35.78339 0 -4.6143503
36.266193 0 -4.6014023
38.347031 0 -4.5878668
38.747826 0 -4.8127651
39.160553 0 -4.7532177
39.554405 0 -4.5707059
40.415012 0 -4.5236211
41.262814 0 -4.7446275
41.586693 0 -4.7583618
42.051563 0 -4.9638305
42.742966 0 -4.638278
43.750874 0 -4.7187915
44.285381 0 -4.6690383
45.327927 0 -4.7823763
45.805286 0 -4.7545104
46.751331 0 -4.6349401
47.383598 0 -4.6748557
48.707878 0 -4.7550006
49.39262 0 -4.6232371
49.791183 0 -4.7626185
50.660839 0 -4.8687091
51.41111 0 -4.7893372
51.948105 0 -4.7575769
52.365608 0 -4.8225956
53.105202 0 -4.7755389
54.187103 0 -4.8398542
54.793396 0 -4.8531332
55.358994 0 -4.9322205
55.676044 0 -4.6104889
56.864021 0 -4.7964358
57.84483 0 -4.6541533
58.289276 0 -4.64679
58.700092 0 -4.6921387
59.365902 0 -4.579936
59.914276 0 -4.6296792
61.203022 0 -4.6595325
62.376076 0 -4.6578465
63.10334 0 -4.7306833
63.632565 0 -4.9525218
64.612358 0 -4.6514893
-65 0.65722299 -4.7660437
65 0.77400875 -4.8436241
-65 1.3082577 -4.8852024
65 1.4439485 -4.7615681
-65 1.6809165 -4.7016134
65 1.8738327 -4.6576447
-65 2.2668562 -4.6028495
65 2.1766806 -4.7931762
-65 2.799022 -4.7012634
-65 3.1803966 -4.951961
65 3.9553697 -4.7303858
-65 4.0145817 -4.9421196
65 4.3998804 -4.8719158
-65 4.7729197 -4.8472357
65 4.6328139 -4.6199975
-64.904335 5 -4.697247
-63.73481 5 -4.71244
-63.126686 5 -4.6722889
-62.539345 5 -4.6101317
-62.330139 5 -4.7781115
-61.637039 5 -4.6499953
-60.654594 5 -4.7629442
-59.635574 5 -4.6131907
-59.32893 5 -4.7697191
-58.731903 5 -4.7062716
-58.083778 5 -4.7309813
-57.669678 5 -4.5828776
-57.403595 5 -4.7462621
-56.195705 5 -4.6523275
-55.74247 5 -4.7285328
-55.11525 5 -4.731123
-54.429176 5 -4.7381639
-53.787891 5 -4.7757378
-53.322456 5 -4.6757355
-52.616234 5 -4.6984549
-51.674515 5 -4.7459097
-51.025009 5 -4.6659784
-50.298298 5 -4.968586
-49.866055 5 -4.6887865
-49.443729 5 -4.8456478
-48.727932 5 -4.6672602
-48.070248 5 -4.9032478
-47.80748 5 -4.7871389
-47.304222 5 -4.6720467
-46.553085 5 -4.6315613
-46.141819 5 -4.6141949
-45.933788 5 -4.9104471
-45.290833 5 -4.7097335
-44.96693 5 -4.6345534
-43.635963 5 -4.9107761
-43.400665 5 -4.6363816
-42.797688 5 -4.5816116
-41.317513 5 -4.7684798
-39.141155 5 -4.5740852
-38.742104 5 -4.8558002
-37.580147 5 -4.7179937
-37.048775 5 -4.7883806
-36.019466 5 -4.7468786
-34.909157 5 -4.8181949
-34.018154 5 -4.6187253
-33.792442 5 -4.6476336
-32.829044 5 -4.7090621
-31.834509 5 -4.7914877
-31.27566 5 -4.6931782
-30.899164 5 -4.6061363
-28.699759 5 -4.8057723
-28.155752 5 -4.7097349
-27.813328 5 -4.5375566
-26.550707 5 -4.8972034
-25.85006 5 -4.5905647
-24.754217 5 -4.8754988
-24.367868 5 -4.7002759
-22.940416 5 -4.5434632
-22.359907 5 -4.8942537
-21.76767 5 -4.6958246
-20.505159 5 -4.9758611
-20.166325 5 -4.8153744
-19.211708 5 -4.8055944
-18.950521 5 -4.5494041
-17.810593 5 -4.6988792
-17.006811 5 -4.7711825
-16.807114 5 -4.6385784
-16.32181 5 -4.7984309
-15.745744 5 -4.6810699
-15.050246 5 -4.5813599
-14.772209 5 -4.7635808
-14.229984 5 -4.772552
-13.151375 5 -4.7786884
-12.866534 5 -4.7201591
-12.282745 5 -4.6102738
-11.638193 5 -4.599515
-10.544701 5 -4.9255261
-10.326146 5 -4.8996258
-9.2761717 5 -4.8139811
-8.5422297 5 -4.9516644
-8.3562965 5 -4.7813277
-7.262013 5 -4.7545409
-6.0891395 5 -4.9454589
-5.9082556 5 -4.7820435
-5.2169509 5 -4.8108268
-4.8373919 5 -4.745018
-4.1639719 5 -4.5074744
-2.6215563 5 -4.8373222
-1.223721 5 -4.7491789
-0.19159777 5 -4.6555738
1.3849005 5 -4.7724347
2.0100942 5 -4.9685707
2.7864442 5 -4.8387084
3.278518 5 -4.6693316
4.4380531 5 -4.7389717
4.7235413 5 -4.8220215
5.3626184 5 -4.7193923
5.5683722 5 -4.926621
6.2048607 5 -4.7186747
6.6487994 5 -4.6998925
7.3203411 5 -4.7008047
7.5557051 5 -4.9986362
8.0121679 5 -4.7975588
8.8598986 5 -4.9928622
9.2467566 5 -4.7205939
9.9665518 5 -4.9645915
10.582257 5 -4.9368181
11.393673 5 -4.7579508
11.532417 5 -4.5997624
12.275106 5 -4.8936434
12.907963 5 -4.8956218
13.481625 5 -4.6288714
14.17142 5 -4.8105111
15.212985 5 -4.6982388
15.772173 5 -4.7287893
16.815596 5 -4.528563
17.400558 5 -4.7653251
17.660368 5 -4.8990426
18.366537 5 -4.7271695
18.765665 5 -4.6414533
19.413647 5 -4.7532902
20.283737 5 -4.8539195
20.800491 5 -4.8402915
21.355019 5 -4.5910163
21.85821 5 -4.5726814
22.037477 5 -4.6994824
22.635046 5 -4.6979833
23.811293 5 -4.5233274
24.730457 5 -4.8777266
25.837223 5 -4.6848149
26.135637 5 -4.6723065
26.62892 5 -4.9400954
27.534687 5 -4.9880857
28.698555 5 -4.8952551
29.066401 5 -4.9899774
30.619495 5 -4.8611784
31.075062 5 -4.7961955
31.777529 5 -4.6948023
32.452843 5 -4.6273108
32.88353 5 -4.8796926
33.374359 5 -4.8134522
34.605865 5 -4.6519027
35.404518 5 -4.9217815
36.143349 5 -4.850935
36.84256 5 -4.7327023
37.448715 5 -4.9833899
37.75893 5 -4.6898413
38.239334 5 -4.9179053
38.734097 5 -4.6566648
39.348862 5 -4.9063325
39.749653 5 -4.6302247
40.714653 5 -4.6516013
41.318947 5 -4.509304
41.831261 5 -4.8988638
43.095142 5 -4.9153061
43.773102 5 -4.6377821
44.918083 5 -4.7803535
45.262695 5 -4.6247802
45.899353 5 -4.7984438
46.0588 5 -4.8222589
47.720539 5 -4.7330627
48.372402 5 -4.8697276
48.681274 5 -4.7876806
50.378059 5 -4.5323548
50.809277 5 -4.7050037
51.892185 5 -4.5738382
52.023453 5 -4.6369915
52.621994 5 -4.9635124
53.366314 5 -4.6157184
53.642525 5 -4.6310201
54.3311 5 -4.8545256
54.751862 5 -4.9823565
55.686012 5 -4.8379059
56.701591 5 -4.7833004
57.731167 5 -4.6164341
58.176819 5 -4.8399153
58.6157 5 -4.6937294
59.233185 5 -4.6179171
59.598419 5 -4.994154
60.665695 5 -4.8012967
61.739738 5 -4.9617958
62.795685 5 -4.676805
63.311134 5 -4.7663975
63.564133 5 -4.802206
64.497551 5 -4.5489721
64.750221 5 -4.9333391
-64.893936 0.058298793 -4.3366008
-63.547371 0 -4.2407789
-63.294041 0 -4.2981763
-62.241352 0 -4.2790294
-61.25547 0 -4.1299448
-60.791439 0 -4.3430009
-60.15144 0 -4.2020626
-58.803791 0 -4.0754128
-58.31707 0 -4.316011
-57.797394 0 -4.0607724
-57.164215 0 -4.3115597
-56.305679 0 -4.3006353
-55.264542 0 -4.0339379
-54.675056 0 -4.0322237
-53.647736 0 -4.4022326
-51.810299 0 -4.452251
-50.771255 0 -4.333818
-49.672295 0 -4.0854692
-49.394596 0 -4.2917323
-47.922974 0 -4.430006
-47.156719 0 -4.3543458
-46.46405 0 -4.102387
-45.844398 0 -4.266489
-45.193764 0 -4.3318915
-44.11948 0 -4.4088707
-43.579964 0 -4.2673664
-42.692608 0 -4.3283615
-42.270798 0 -4.4789162
-41.781475 0 -4.136466
-41.038467 0 -4.4452591
-40.770672 0 -4.1819878
-40.429428 0 -4.3709097
-39.65588 0 -4.2114954
-38.575726 0 -4.2138243
-38.481728 0 -4.0918603
-37.642891 0 -4.0298681
-37.023762 0 -4.2822065
-36.535404 0 -4.4619856
-35.953064 0 -4.1376371
-35.322075 0 -4.316638
-34.789452 0 -4.2714939
-34.267044 0 -4.3112793
-31.905064 0 -4.4112148
-31.199335 0 -4.3263397
-30.809399 0 -4.3605819
-30.182259 0 -4.2902155
-29.707207 0 -4.312686
-29.137962 0 -4.2117682
-28.625477 0 -4.4620047
-28.11314 0 -4.3995552
-27.946346 0 -4.2108412
-27.138144 0 -4.2175083
-26.992403 0 -4.0240703
-26.219429 0 -4.2578878
-25.770464 0 -4.1163373
-25.088928 0 -4.1498489
-24.808064 0 -4.0867853
-23.588877 0 -4.1494536
-22.872328 0 -4.1545095
-21.801762 0 -4.1668673
-21.491589 0 -4.1496797
-20.57885 0 -4.4196024
-19.975937 0 -4.0301099
-18.201874 0 -4.2915978
-17.82765 0 -4.4312119
-17.361788 0 -4.3936019
-16.694965 0 -4.3609481
-16.264389 0 -4.2498655
-15.796872 0 -4.2841249
-15.422451 0 -4.1147194
-14.618511 0 -4.2305789
-14.462303 0 -4.3560367
-13.566255 0 -4.3977952
-13.041524 0 -4.3894119
-12.807879 0 -4.333982
-12.485145 0 -4.1438551
-11.859873 0 -4.2929149
-10.19278 0 -4.3057985
-9.7104111 0 -4.3889914
-8.0650864 0 -4.0587339
-7.9692211 0 -4.4035282
-7.2644815 0 -4.2837515
-6.835525 0 -4.0285788
-6.1617117 0 -4.3754416
-5.8879981 0 -4.0480132
-5.0790696 0 -4.3850813
-4.7569146 0 -4.2865896
-4.0811224 0 -4.2058167
-2.7429931 0 -4.3258648
-2.0053177 0 -4.4133615
-1.9121009 0 -4.2110534
-1.2545676 0 -4.2545614
-0.56432462 0 -4.407546
-0.30646327 0 -4.2106881
0.37219042 0 -4.2748451
0.62167978 0 -4.0223355
1.2129748 0 -4.2087536
1.6738917 0 -4.2170467
2.1921425 0 -4.2549067
3.0687201 0 -4.4367304
3.9271507 0 -4.0008326
4.2179594 0 -4.3151379
4.6988239 0 -4.0500674
5.1803689 0 -4.4931955
5.7364655 0 -4.4421329
6.7304497 0 -4.0808311
7.2928848 0 -4.3091307
8.273633 0 -4.3929
9.0541763 0 -4.456028
10.457357 0 -4.3267426
10.844186 0 -4.0098233
11.388867 0 -4.1416187
12.200145 0 -4.1165767
12.765624 0 -4.0639305
14.349434 0 -4.2644773
14.572666 0 -4.2788367
15.257143 0 -4.0784721
15.949481 0 -4.2591248
16.007872 0 -4.0873365
16.959841 0 -4.1313262
17.370918 0 -4.2451458
17.608692 0 -4.0211916
18.00816 0 -4.3442683
19.421803 0 -4.3036251
19.639668 0 -4.1442795
21.11397 0 -4.2066498
22.330975 0 -4.258451
22.526033 0 -4.185895
23.68886 0 -4.298944
24.373692 0 -4.0884819
24.582972 0 -4.0077076
25.09816 0 -4.0121908
25.74395 0 -4.0821047
26.429289 0 -4.1610351
26.92597 0 -4.0488405
27.97414 0 -4.0924487
28.049025 0 -4.0301142
28.662531 0 -4.166481
29.260952 0 -4.1403699
29.837002 0 -4.1156216
30.491529 0 -4.0563908
31.264894 0 -4.32021
32.931839 0 -4.0061321
33.15163 0 -4.1264524
33.700817 0 -4.3199577
34.833408 0 -4.4930067
35.234062 0 -4.2967386
35.718464 0 -4.291965
36.164955 0 -4.201489
36.52747 0 -4.2218647
37.221115 0 -4.3200493
37.756107 0 -4.3181019
38.409893 0 -4.4468489
39.349377 0 -4.3089504
40.149971 0 -4.3587637
40.958557 0 -4.0164056
41.164803 0 -4.2624469
42.601311 0 -4.2288218
44.730709 0 -4.1250434
45.280979 0 -4.4971819
46.425354 0 -4.2733483
46.707176 0 -4.2441173
47.487938 0 -4.3081594
50.643898 0 -4.4412208
51.222813 0 -4.2555485
51.704647 0 -4.2253256
52.121418 0 -4.4120922
52.776527 0 -4.346632
53.405663 0 -4.3407125
54.175117 0 -4.2998104
54.610306 0 -4.1133757
55.189354 0 -4.2516561
55.783661 0 -4.3037734
56.420906 0 -4.2033567
56.759411 0 -4.2528424
57.002396 0 -4.1837597
57.63512 0 -4.0191441
58.226448 0 -4.4558425
60.12965 0 -4.2987165
61.390598 0 -4.3011565
61.655193 0 -4.2073989
62.720917 0 -4.1498423
63.199131 0 -4.2886295
63.594185 0 -4.1928587
64.429642 0 -4.0626764
64.883896 0 -4.129612
65 0.21653879 -4.2370172
65 0.71104044 -4.3502536
-65 1.2280514 -4.2339969
65 1.2216693 -4.0814767
-65 1.5724534 -4.1415143
65 1.5684726 -4.261199
65 2.0729804 -4.2692442
-65 2.5832796 -4.3083181
65 2.658524 -4.2184043
-65 3.2286108 -4.3407803
65 3.289058 -4.152287
-65 3.9361746 -4.2946081
65 3.6117408 -4.2174263
-65 4.2981138 -4.079051
65 4.2673335 -4.2201214
-65 4.7090349 -4.3782668
-64.78302 5 -4.0754962
-64.106346 5 -4.0534434
-63.638897 5 -4.1072774
-63.315395 5 -4.333672
-61.968769 5 -4.2541475
-61.210255 5 -4.2104945
-60.661686 5 -4.2336783
-60.464859 5 -4.0151711
-59.941444 5 -4.2781134
-59.232315 5 -4.1382556
-58.676544 5 -4.3186083
-58.37154 5 -4.2279401
-57.911476 5 -4.2674775
-57.030838 5 -4.1543269
-56.73885 5 -4.2985277
-56.322983 5 -4.2027793
-55.673687 5 -4.3612471
-55.067715 5 -4.3030887
-54.563141 5 -4.3002634
-54.333218 5 -4.2171426
-53.665714 5 -4.1701179
-53.448154 5 -4.3137493
-52.742134 5 -4.1643763
-52.149708 5 -4.4320588
-51.68008 5 -4.0979476
-51.407066 5 -4.1581182
-50.912888 5 -4.2911854
-50.331451 5 -4.424057
-49.545113 5 -4.4725599
-49.247124 5 -4.1106544
-48.257629 5 -4.321568
-47.799908 5 -4.1394944
-47.163918 5 -4.2902107
-46.810268 5 -4.2837238
-46.169464 5 -4.3949828
-45.749203 5 -4.4303637
-45.111328 5 -4.2740083
-44.704174 5 -4.2021122
-44.293655 5 -4.2406025
-43.280823 5 -4.3354144
-42.232052 5 -4.2098346
-41.559731 5 -4.2847948
-41.410892 5 -4.1230497
-40.647011 5 -4.2351508
-40.261326 5 -4.2297196
-39.59639 5 -4.2087479
-39.358513 5 -4.1293697
-38.223495 5 -4.2622776
-37.843735 5 -4.228756
-37.400513 5 -4.4245667
-35.753281 5 -4.3936682
-35.073387 5 -4.0833807
-34.843117 5 -4.2352371
-33.754143 5 -4.3787165
-32.638428 5 -4.1883793
-32.03548 5 -4.4403496
-31.940594 5 -4.2455654
-31.311327 5 -4.2848592
-30.620314 5 -4.2448153
-30.345171 5 -4.2334862
-29.720924 5 -4.3225918
-28.918732 5 -4.1148162
-28.219414 5 -4.2409272
-27.868156 5 -4.4962401
-25.779688 5 -4.3463707
-25.239075 5 -4.2284765
-24.935518 5 -4.1542969
-24.20723 5 -4.3136978
-23.900118 5 -4.2413535
-23.247055 5 -4.3076229
-22.747337 5 -4.1939187
-21.806328 5 -4.2761583
-20.703045 5 -4.275775
-20.337997 5 -4.1658945
-19.711435 5 -4.3573279
-19.258656 5 -4.1434202
-18.869904 5 -4.3405313
-18.221684 5 -4.2164879
-17.840845 5 -4.2342124
-16.636345 5 -4.2295303
-16.209789 5 -4.04211
-15.282785 5 -4.2142925
-14.680688 5 -4.2873926
-14.142131 5 -4.2800288
-13.85614 5 -4.3414235
-12.363739 5 -4.423728
-11.308146 5 -4.2296114
-10.718645 5 -4.2287803
-10.060287 5 -4.2173676
-9.7096567 5 -4.3664374
-8.0720882 5 -4.4698448
-7.8944831 5 -4.0196657
-7.1739783 5 -4.295218
-6.8779092 5 -4.3646135
-6.0870705 5 -4.2422333
-5.9616995 5 -4.3545609
-4.1942558 5 -4.1308427
-2.6801586 5 -4.1959472
-2.3923941 5 -4.2701054
-0.69459343 5 -4.0643525
1.2390811 5 -4.1192884
1.8809834 5 -4.0119743
2.1830389 5 -4.1242204
3.323432 5 -4.237052
3.629319 5 -4.429914
4.4630961 5 -4.0992174
4.7269716 5 -4.1965399
5.4552593 5 -4.2620029
5.7344151 5 -4.0561476
6.1197495 5 -4.1926851
6.5906668 5 -4.2280865
7.0836902 5 -4.1647048
7.7584162 5 -4.1089282
8.1876402 5 -4.1606712
8.6927624 5 -4.3952188
9.9623966 5 -4.1517019
10.251713 5 -4.1571045
11.572083 5 -4.4360209
12.393909 5 -4.0418935
12.753565 5 -4.3610964
13.199936 5 -4.4308739
13.518749 5 -4.449214
14.414137 5 -4.1487818
14.767183 5 -4.2740545
15.348409 5 -4.3348985
16.273384 5 -4.460146
16.750536 5 -4.2175822
17.300323 5 -4.0019131
17.828869 5 -4.4924874
18.314964 5 -4.2543545
18.9009 5 -4.1805391
19.037039 5 -4.1573958
19.602337 5 -4.1740746
20.416344 5 -4.0643415
21.168875 5 -4.0539827
22.432642 5 -4.3108926
23.291027 5 -4.1569042
23.603109 5 -4.3377523
24.152552 5 -4.1818514
25.29089 5 -4.1796556
25.754461 5 -4.1809196
26.169113 5 -4.4306083
26.713507 5 -4.2408276
27.286623 5 -4.2060456
27.61031 5 -4.1915312
28.004423 5 -4.2770958
29.793718 5 -4.3814607
30.159468 5 -4.29389
30.780066 5 -4.3710084
31.405548 5 -4.3072724
32.271259 5 -4.2897573
32.852127 5 -4.2336884
33.042839 5 -4.142561
33.549469 5 -4.2541208
34.106167 5 -4.4529405
34.750126 5 -4.2331758
35.288689 5 -4.2455158
35.678944 5 -4.270545
36.284119 5 -4.3678594
36.572708 5 -4.304471
37.060593 5 -4.2486258
37.634224 5 -4.3643122
38.43861 5 -4.2176185
38.811371 5 -4.3719411
39.455856 5 -4.0534749
39.550621 5 -4.0037446
40.358044 5 -4.1958623
40.523678 5 -4.1792665
41.081215 5 -4.4754939
41.852451 5 -4.3201933
42.10075 5 -4.3771358
42.833477 5 -4.1936984
43.648418 5 -4.3090811
44.332382 5 -4.1464591
44.505615 5 -4.2076812
45.538525 5 -4.1714087
46.429108 5 -4.1005311
46.969193 5 -4.2272706
47.700321 5 -4.2225075
48.204502 5 -4.1894264
48.808498 5 -4.3332191
49.169666 5 -4.1428003
49.917324 5 -4.0489969
50.713245 5 -4.332222
51.092682 5 -4.2163081
51.731754 5 -4.2002807
52.238209 5 -4.2757444
52.637413 5 -4.2716241
53.911411 5 -4.2231331
54.142349 5 -4.0744357
54.855595 5 -4.4480772
55.607712 5 -4.2815056
56.33152 5 -4.3948002
57.843925 5 -4.0106287
58.224861 5 -4.311018
59.862984 5 -4.2874193
60.384846 5 -4.3873205
61.265263 5 -4.1261597
62.402176 5 -4.2845063
63.675964 5 -4.3580804
64.219864 5 -4.2879381
64.83622 5 -4.3249092
-64.879585 0.081066608 -3.7430575
-64.453041 0 -3.7121243
-62.647736 0 -3.6993561
-61.692112 0 -3.6691396
-61.234264 0 -3.9876385
-60.975353 0 -3.9206238
-60.230068 0 -3.6038406
-59.90984 0 -3.9880493
-58.934273 0 -3.9890847
-58.360359 0 -3.8960519
-57.67794 0 -3.7721176
-56.818047 0 -3.7611327
-56.252895 0 -3.6963472
-55.82935 0 -3.8080027
-55.350281 0 -3.687654
-54.783081 0 -3.6810637
-54.190742 0 -3.6788533
-53.552471 0 -3.988271
-53.098137 0 -3.9210558
-52.837254 0 -3.7577558
-52.406013 0 -3.7098069
-51.820148 0 -3.7350531
-51.184048 0 -3.9997623
-50.058327 0 -3.6570282
-49.741249 0 -3.7120833
-49.232544 0 -3.7158372
-48.803749 0 -3.5511653
-48.353848 0 -3.7809143
-47.940422 0 -3.7090106
-47.307205 0 -3.7084081
-46.851944 0 -3.7157841
-46.063911 0 -3.6582904
-45.82127 0 -3.8005381
-45.193615 0 -3.8377163
-44.8009 0 -3.7690477
-44.219257 0 -3.9797533
-43.369247 0 -3.9024568
-41.566521 0 -3.99807
-41.303398 0 -3.7508304
-40.035889 0 -3.7176642
-39.747402 0 -3.6573644
-39.201378 0 -3.7785356
-38.811115 0 -3.5702891
-37.725113 0 -3.5257354
-36.595268 0 -3.7357488
-36.302597 0 -3.6084671
-35.317905 0 -3.5823019
-34.749317 0 -3.9253235
-33.95507 0 -3.6433189
-33.333916 0 -3.7388389
-32.83028 0 -3.8435378
-32.216988 0 -3.770684
-31.361103 0 -3.7523415
-30.690357 0 -3.8373137
-30.273417 0 -3.6434164
-29.718903 0 -3.7034264
-29.023321 0 -3.854727
-28.837996 0 -3.8998585
-28.396343 0 -3.8859575
-27.811964 0 -3.7927768
-27.010418 0 -3.6945851
-26.870375 0 -3.7537615
-26.247046 0 -3.8090465
-25.311081 0 -3.6626391
-24.965349 0 -3.8671937
-24.267784 0 -3.8671188
-23.244801 0 -3.7946227
-22.684067 0 -3.7674139
-22.471476 0 -3.6597798
-21.578117 0 -3.6075935
-21.172262 0 -3.7967401
-20.852217 0 -3.7152445
-20.238432 0 -3.8557844
-19.890459 0 -3.8630416
-19.232893 0 -3.5444303
-18.926157 0 -3.7481868
-18.242676 0 -3.7288256
-17.827164 0 -3.7351873
-17.263315 0 -3.5952094
-16.695934 0 -3.7790546
-16.223906 0 -3.6553645
-15.869248 0 -3.757448
-14.876287 0 -3.7202187
-13.94462 0 -3.743592
-13.244876 0 -3.7526217
-11.925833 0 -3.9680405
-10.829884 0 -3.8619404
-9.7136974 0 -3.6085958
-9.4112206 0 -3.7643371
-8.9088945 0 -3.5830791
-8.3926468 0 -3.7256937
-7.5610375 0 -3.6742818
-7.1412482 0 -3.8320136
-6.1307712 0 -3.7340264
-5.6455636 0 -3.8348598
-4.8309259 0 -3.7781353
-3.9725285 0 -3.5679405
-2.7903037 0 -3.8941231
-2.3115625 0 -3.7531433
-1.9304003 0 -3.5535386
-1.3767235 0 -3.5971088
0.053421158 0 -3.7513082
1.5033135 0 -3.5373867
2.0150912 0 -3.9718351
2.7744932 0 -3.7071822
3.1338992 0 -3.7470307
3.5354941 0 -3.991328
4.3384914 0 -3.681427
4.9576683 0 -3.8667781
7.0558195 0 -3.8066559
7.724494 0 -3.6410751
8.1871014 0 -3.8046758
8.521863 0 -3.8958175
9.8371058 0 -3.5139105
10.983532 0 -3.8052523
11.170817 0 -3.8616965
11.688131 0 -3.7496858
12.597332 0 -3.8346214
13.779331 0 -3.6925752
14.0923 0 -3.7572627
14.882785 0 -3.7041843
16.601059 0 -3.5729084
17.43372 0 -3.602668
18.547148 0 -3.7514184
19.354252 0 -3.5227673
20.523346 0 -3.9430468
21.577938 0 -3.5380087
22.195799 0 -3.6416187
22.597937 0 -3.8658149
24.224236 0 -3.7116816
24.562408 0 -3.9027355
25.303385 0 -3.742954
25.714293 0 -3.7725582
27.040197 0 -3.6949797
27.716089 0 -3.6749089
28.344307 0 -3.9149477
29.249947 0 -3.739542
29.700733 0 -3.8782601
30.225134 0 -3.7434356
30.902809 0 -3.804249
31.361019 0 -3.7856808
31.515472 0 -3.6453831
32.791958 0 -3.8846121
33.477821 0 -3.9627185
33.742802 0 -3.8236473
34.181763 0 -3.664993
34.828266 0 -3.770618
35.292778 0 -3.7896945
35.668461 0 -3.7861385
36.218784 0 -3.7039762
36.759289 0 -3.9888031
37.734028 0 -3.7938983
38.667015 0 -3.7541456
40.151188 0 -3.912921
40.639565 0 -3.8564403
41.531864 0 -3.5926695
42.019188 0 -3.9508662
42.599823 0 -3.9295411
43.26088 0 -3.5031292
43.658131 0 -3.6918099
44.277706 0 -3.7295549
45.475159 0 -3.9740353
46.215668 0 -3.6264763
46.626755 0 -3.5207534
47.165154 0 -3.8619754
48.245819 0 -3.80371
48.714825 0 -3.7405729
49.318352 0 -3.7025836
49.590664 0 -3.5690086
50.740192 0 -3.8987162
51.516232 0 -3.5719533
52.52018 0 -3.7497253
53.243835 0 -3.755024
53.581398 0 -3.6157157
54.897369 0 -3.6702695
55.33493 0 -3.7613602
56.192692 0 -3.7802832
56.724808 0 -3.6004994
58.390739 0 -3.8269947
58.834698 0 -3.6582012
59.087906 0 -3.6003151
59.74641 0 -3.7873025
60.286774 0 -3.790947
60.543751 0 -3.8363822
61.902611 0 -3.8739357
62.255352 0 -3.7190123
62.589985 0 -3.5431306
63.382259 0 -3.939116
63.965607 0 -3.7588427
64.085632 0 -3.7044764
64.696228 0 -3.8327942
65 0.3529202 -3.6829801
-65 0.743496 -3.780149
65 0.96925873 -3.5520203
-65 1.3446889 -3.7197545
-65 1.536323 -3.7672734
65 1.559314 -3.9147611
-65 2.2323084 -3.8684607
65 2.1086934 -3.6378753
-65 2.6614959 -3.7849188
65 2.8886521 -3.7467954
-65 3.2535121 -3.7993531
65 3.1656585 -3.7622681
-65 3.9795682 -3.9743447
65 3.9302342 -3.6845605
-65 4.2642794 -3.7325008
65 4.1822701 -3.5913711
-65 4.8546214 -3.5992956
65 4.7508922 -3.6498241
-64.042221 5 -3.7552133
-63.610199 5 -3.7736487
-63.096745 5 -3.8800957
-62.303787 5 -3.6568003
-61.528816 5 -3.7571225
-59.507122 5 -3.8140759
-59.131264 5 -3.7208984
-58.795197 5 -3.8222728
-58.282051 5 -3.7805657
-57.605225 5 -3.6554298
-57.023849 5 -3.7625179
-56.84079 5 -3.7058003
-56.256073 5 -3.6718547
-55.700077 5 -3.9471612
-55.188175 5 -3.7988381
-54.3405 5 -3.956851
-53.881081 5 -3.6198335
-52.684479 5 -3.779325
-51.733391 5 -3.6821833
-51.283607 5 -3.9120712
-50.085682 5 -3.9474914
-49.544735 5 -3.6276028
-49.352749 5 -3.5573859
-48.783737 5 -3.6354284
-48.286751 5 -3.8885715
-47.299191 5 -3.7442105
-45.264252 5 -3.8611174
-44.647652 5 -3.6748333
-44.26421 5 -3.7346709
-43.730419 5 -3.7739799
-42.588238 5 -3.9578385
-42.445091 5 -3.6990032
-41.525269 5 -3.6241436
-41.372223 5 -3.787189
-40.935772 5 -3.8853414
-40.243362 5 -3.6211591
-39.907787 5 -3.5511475
-39.312031 5 -3.5745618
-38.77702 5 -3.803653
-37.961632 5 -3.7383752
-37.118038 5 -3.9499347
-36.750675 5 -3.9554272
-35.723595 5 -3.7404723
-35.446701 5 -3.5715275
-33.738556 5 -3.7008131
-33.435051 5 -3.5376732
-32.988972 5 -3.9217246
-32.489544 5 -3.7213526
-31.837067 5 -3.779341
-31.434618 5 -3.7738943
-30.565273 5 -3.9038124
-30.260675 5 -3.5916858
-29.804556 5 -3.7217395
-29.439461 5 -3.7652988
-28.67005 5 -3.7573574
-28.074352 5 -3.784317
-27.760565 5 -3.6635315
-27.472507 5 -3.6052203
-26.711452 5 -3.7151554
-26.363991 5 -3.596812
-25.842361 5 -3.6420956
-23.807652 5 -3.8726935
-23.118324 5 -3.7064819
-21.54501 5 -3.8149986
-20.70121 5 -3.7732766
-19.60578 5 -3.6164298
-19.150988 5 -3.8271344
-18.784353 5 -3.8471971
-18.40383 5 -3.8345385
-17.792269 5 -3.5597439
-17.113697 5 -3.8523817
-16.067043 5 -3.8485601
-15.228268 5 -3.8340926
-14.175005 5 -3.7157893
-13.819247 5 -3.7223577
-13.068726 5 -3.8297198
-12.953343 5 -3.8409886
-12.278689 5 -3.7367668
-10.897598 5 -3.6311612
-10.291005 5 -3.6329763
-9.6367111 5 -3.6410391
-9.1970692 5 -3.6851683
-8.8446541 5 -3.7659173
-8.1932888 5 -3.9007511
-7.3791633 5 -3.693913
-6.729773 5 -3.6289597
-5.9012432 5 -3.5290921
-5.1309214 5 -3.6709743
-4.2144685 5 -3.9120114
-3.640806 5 -3.7553623
-3.0808465 5 -3.7373123
-1.7283454 5 -3.5627377
-1.1681864 5 -3.9546528
-0.76746792 5 -3.7470601
0.31883657 5 -3.5195384
0.64174604 5 -3.6627567
1.2223022 5 -3.8825278
1.9317313 5 -3.9858572
2.2711823 5 -3.6550837
2.8051591 5 -3.5219612
3.3929524 5 -3.5617497
4.2571526 5 -3.8400621
5.0414114 5 -3.7156608
5.6098423 5 -3.5905919
6.3116894 5 -3.6878116
7.1851254 5 -3.7497272
7.7427821 5 -3.9042523
8.2334223 5 -3.7676005
9.2856731 5 -3.9282138
9.7562885 5 -3.7802677
10.036217 5 -3.5483487
10.654484 5 -3.7424326
12.638393 5 -3.6371574
13.747334 5 -3.7972891
14.235476 5 -3.7601821
14.986108 5 -3.9745216
15.117237 5 -3.89024
15.962828 5 -3.8400164
16.21339 5 -3.6704082
16.803802 5 -3.7247181
17.288197 5 -3.8638871
18.18972 5 -3.9905276
20.472803 5 -3.7016535
21.213774 5 -3.7463562
22.925005 5 -3.6874359
23.999115 5 -3.5647359
25.28186 5 -3.8935907
25.800251 5 -3.5913818
26.48912 5 -3.893919
27.252747 5 -3.8321033
27.969465 5 -3.8171165
29.468592 5 -3.8894997
30.314686 5 -3.7631075
30.705339 5 -3.8269169
31.072941 5 -3.7626743
31.769571 5 -3.8686774
32.644218 5 -3.9405434
33.297169 5 -3.7750309
34.274288 5 -3.8539884
35.221115 5 -3.6287169
35.656063 5 -3.8770838
36.901665 5 -3.6942048
37.384502 5 -3.5926774
37.736427 5 -3.5834103
38.167038 5 -3.6513233
39.530716 5 -3.8030612
40.322941 5 -3.7835951
40.65638 5 -3.7510426
41.073963 5 -3.9485633
41.627174 5 -3.6897454
42.359608 5 -3.5026536
42.666821 5 -3.7863257
43.766499 5 -3.8905926
44.227249 5 -3.607198
44.683006 5 -3.7860117
45.045395 5 -3.8117595
45.909218 5 -3.883584
46.34166 5 -3.8718934
47.159756 5 -3.8139038
47.752293 5 -3.7348919
48.279716 5 -3.815382
48.82127 5 -3.6759281
49.130058 5 -3.8097477
50.229336 5 -3.8573363
50.724716 5 -3.8534849
51.412712 5 -3.6995916
51.818729 5 -3.8716016
52.382935 5 -3.9742417
52.588791 5 -3.7643392
53.777752 5 -3.839282
54.389233 5 -3.9715381
55.325394 5 -3.8462791
55.802727 5 -3.8138552
56.376495 5 -3.882164
56.720787 5 -3.916604
57.051376 5 -3.7701733
58.610062 5 -3.8414636
59.154099 5 -3.5932806
59.593742 5 -3.6588721
60.765377 5 -3.670094
61.218052 5 -3.7432842
61.560654 5 -3.747205
62.551186 5 -3.9975421
63.217571 5 -3.5966022
63.590042 5 -3.8544681
64.060219 5 -3.8865862
64.662827 5 -3.7739069
-64.945328 0.23401304 -3.1757598
-64.260895 0 -3.2296462
-63.413837 0 -3.2526219
-62.60825 0 -3.2557375
-62.000763 0 -3.1127024
-61.682411 0 -3.4618247
-61.313068 0 -3.0293319
-59.595703 0 -3.2167134
-57.7505 0 -3.1154525
-57.3871 0 -3.488147
-56.80645 0 -3.4955411
-56.191303 0 -3.1912155
-55.664604 0 -3.1995087
-55.222916 0 -3.3529549
-54.965328 0 -3.4430356
-54.014687 0 -3.1815665
-53.65675 0 -3.2485983
-53.38472 0 -3.2818208
-52.838898 0 -3.1878867
-52.05497 0 -3.1582386
-51.798233 0 -3.2257891
-51.454586 0 -3.0264432
-50.652061 0 -3.358212
-49.654366 0 -3.056529
-49.343575 0 -3.1391973
-48.33979 0 -3.205102
-47.244343 0 -3.498168
-46.831665 0 -3.4259977
-46.227623 0 -3.0370777
-45.881935 0 -3.1317508
-44.733685 0 -3.3708036
-44.193607 0 -3.2883251
-42.915493 0 -3.0325851
-42.244572 0 -3.0651467
-41.627979 0 -3.1779761
-40.897839 0 -3.287245
-40.247948 0 -3.3575947
-39.952801 0 -3.3091702
-39.377571 0 -3.112674
-38.642342 0 -3.1906612
-38.141628 0 -3.1087971
-37.79324 0 -3.3003731
-37.303703 0 -3.2625206
-36.593876 0 -3.2483521
-36.005863 0 -3.3123758
-35.939838 0 -3.3878579
-35.24453 0 -3.3787096
-34.816593 0 -3.1602581
-34.196068 0 -3.3530633
-33.845367 0 -3.4099231
-33.161613 0 -3.394311
-32.946877 0 -3.3994288
-32.191715 0 -3.084111
-31.744913 0 -3.2148602
-31.43693 0 -3.4522338
-30.900328 0 -3.0470939
-29.843094 0 -3.39539
-29.180714 0 -3.1871822
-28.377127 0 -3.4153693
-27.816412 0 -3.1534772
-27.142338 0 -3.1101012
-26.746374 0 -3.2053375
-26.351231 0 -3.4111919
-25.87896 0 -3.1313837
-25.075205 0 -3.0055695
-24.816534 0 -3.0914011
-24.392477 0 -3.3092611
-23.235723 0 -3.0924988
-22.473982 0 -3.1867032
-20.874409 0 -3.3911843
-19.714458 0 -3.2604101
-18.014194 0 -3.4669242
-17.716728 0 -3.1766717
-17.162022 0 -3.2634623
-16.259422 0 -3.3501568
-15.685744 0 -3.1032329
-15.457428 0 -3.2257113
-14.665812 0 -3.1749609
-14.307795 0 -3.0363948
-13.789625 0 -3.1711066
-13.135742 0 -3.2567496
-12.090481 0 -3.0461264
-11.797252 0 -3.0942559
-11.218002 0 -3.1999156
-10.044602 0 -3.1451502
-9.8070736 0 -3.4922748
-9.280076 0 -3.3232517
-8.1328297 0 -3.1096814
-7.8847561 0 -3.4470508
-7.3480444 0 -3.3141809
-6.5728478 0 -3.2619338
-6.4896655 0 -3.0077803
-4.2351408 0 -3.1886215
-3.1505704 0 -3.3028302
-2.8463984 0 -3.2201631
-2.2532361 0 -3.1774032
-1.6706797 0 -3.0068312
-0.62324131 0 -3.1572738
0.74911189 0 -3.1461968
1.7108797 0 -3.1487899
2.4491129 0 -3.2535472
2.9964323 0 -3.283742
3.1920826 0 -3.3988059
3.7879 0 -3.1836965
4.1916122 0 -3.1333523
4.8566451 0 -3.2137015
5.1477799 0 -3.1831806
5.8199596 0 -3.2301686
6.010798 0 -3.3924432
7.6731477 0 -3.3382547
8.2378674 0 -3.4610419
9.0614891 0 -3.2977803
9.9432316 0 -3.2041204
10.233764 0 -3.2528808
12.948527 0 -3.3365202
13.866058 0 -3.2466581
14.270008 0 -3.1579432
14.711986 0 -3.2757807
15.401891 0 -3.0867753
16.157177 0 -3.3172989
16.564388 0 -3.0314758
17.291082 0 -3.2217197
17.889936 0 -3.2816639
18.242247 0 -3.2953095
18.802147 0 -3.2176085
19.404011 0 -3.4386196
19.828894 0 -3.048789
20.36639 0 -3.2125442
20.598944 0 -3.355561
21.356907 0 -3.1843693
21.596823 0 -3.4559045
23.251396 0 -3.1472268
23.702158 0 -3.2632682
24.280689 0 -3.1884608
24.542423 0 -3.2436252
25.704491 0 -3.2668767
26.154057 0 -3.3167119
26.981892 0 -3.3942463
27.363194 0 -3.1571007
27.94165 0 -3.4023533
28.216522 0 -3.3709087
28.701166 0 -3.4583268
29.469648 0 -3.2814026
29.770914 0 -3.2252159
30.32021 0 -3.1397552
30.700417 0 -3.239552
31.241592 0 -3.0591781
31.875889 0 -3.3455768
32.650932 0 -3.3171389
33.347855 0 -3.2437146
33.700012 0 -3.0013187
34.749214 0 -3.2139735
35.288525 0 -3.250185
35.724655 0 -3.1770484
36.477032 0 -3.1333585
37.24572 0 -3.3888783
38.90823 0 -3.1371942
39.379421 0 -3.3554337
39.873734 0 -3.3742213
40.28101 0 -3.2798519
40.703899 0 -3.192872
41.090015 0 -3.0043049
41.510769 0 -3.3891349
42.293953 0 -3.2269728
42.923206 0 -3.4415252
44.254318 0 -3.0662346
45.258636 0 -3.4711504
45.725422 0 -3.1176796
46.18111 0 -3.2485917
46.76767 0 -3.1795449
47.198456 0 -3.1275518
47.808758 0 -3.1845334
48.79895 0 -3.216419
49.391747 0 -3.1448231
49.915894 0 -3.2022166
50.057938 0 -3.2899625
51.508492 0 -3.3967137
52.76976 0 -3.4827552
53.099079 0 -3.1746225
53.998577 0 -3.398355
54.214592 0 -3.2199395
55.329121 0 -3.197942
55.800068 0 -3.201205
56.32637 0 -3.2526243
56.814156 0 -3.4982903
57.202389 0 -3.182972
58.415802 0 -3.1241498
58.73452 0 -3.173831
59.70203 0 -3.2041368
61.268986 0 -3.2466872
62.410599 0 -3.266763
63.446541 0 -3.389652
63.792145 0 -3.2487307
64.094841 0 -3.1183376
65 0.036131941 -3.3456745
-65 0.56158572 -3.0802417
65 0.75112772 -3.4432666
-65 1.3792393 -3.1072931
65 1.136644 -3.495914
-65 1.8088403 -3.0079234
65 1.8011378 -3.1539478
-65 2.0784385 -3.1966355
-65 2.7196827 -3.0537777
-65 3.6093564 -3.2086287
65 3.6554699 -3.239733
-65 4.2610979 -3.0515156
65 4.0321064 -3.2505846
-65 4.5331154 -3.4129665
-64.766716 5 -3.413744
-62.80352 5 -3.2931113
-61.609291 5 -3.3249843
-60.514301 5 -3.4937613
-60.27071 5 -3.4242787
-59.678177 5 -3.2813623
-59.175491 5 -3.2510781
-58.898468 5 -3.4274101
-57.537476 5 -3.4273908
-56.032921 5 -3.3419096
-55.894829 5 -3.164979
-55.29702 5 -3.3504479
-54.666702 5 -3.2816837
-54.067074 5 -3.2251132
-53.845356 5 -3.4265327
-53.294994 5 -3.3629661
-52.312973 5 -3.1225202
-51.880486 5 -3.2409947
-51.46254 5 -3.1575818
-50.914867 5 -3.3291416
-49.644821 5 -3.1938732
-49.118664 5 -3.3134403
-48.958961 5 -3.1654882
-47.779663 5 -3.037601
-46.960369 5 -3.206744
-46.297894 5 -3.1017945
-45.99604 5 -3.4627528
-45.229095 5 -3.2596271
-44.634743 5 -3.0649705
-44.181438 5 -3.4674454
-43.644131 5 -3.1921363
-43.440941 5 -3.2902198
-41.633526 5 -3.4102619
-41.426575 5 -3.1550546
-40.381599 5 -3.3480692
-39.520947 5 -3.4958239
-39.143631 5 -3.3421459
-38.634033 5 -3.123812
-38.261066 5 -3.1773005
-37.754951 5 -3.2380309
-37.21011 5 -3.3573399
-36.059509 5 -3.2678881
-35.539276 5 -3.2376935
-35.147877 5 -3.3128769
-34.558971 5 -3.4771516
-34.174717 5 -3.1770961
-33.448502 5 -3.103539
-32.643021 5 -3.4608102
-32.06477 5 -3.1237655
-31.366886 5 -3.2209949
-30.807823 5 -3.1598396
-30.243185 5 -3.1729431
-29.544918 5 -3.4570935
-29.396706 5 -3.0646691
-28.776249 5 -3.247921
-27.726372 5 -3.1630042
-27.336311 5 -3.2431355
-26.40024 5 -3.0532267
-25.225857 5 -3.0967331
-24.121113 5 -3.2438002
-23.633211 5 -3.1381676
-22.926064 5 -3.181098
-21.857817 5 -3.2240932
-20.682333 5 -3.3195837
-20.203083 5 -3.2779224
-19.858301 5 -3.1511869
-19.340549 5 -3.2411127
-18.297472 5 -3.119278
-17.837179 5 -3.3377495
-17.095676 5 -3.2981882
-16.198608 5 -3.3061485
-15.876865 5 -3.3412166
-15.390904 5 -3.0879807
-14.721138 5 -3.1788895
-13.656897 5 -3.3476288
-12.882663 5 -3.4417136
-12.270345 5 -3.2403057
-11.240153 5 -3.4884267
-10.525504 5 -3.0971489
-10.117406 5 -3.2597933
-9.3389244 5 -3.2779329
-8.3028011 5 -3.2597947
-7.6859913 5 -3.3190234
-6.7485251 5 -3.1264124
-6.3922987 5 -3.1347771
-5.7438836 5 -3.2081785
-4.8299952 5 -3.2592232
-4.0152817 5 -3.249639
-3.885541 5 -3.2567816
-3.0570731 5 -3.4494123
-2.7037468 5 -3.093327
-1.9179003 5 -3.1502628
-1.3063248 5 -3.4181349
-0.57596374 5 -3.1830509
-0.3382352 5 -3.0272679
0.35150561 5 -3.3133037
0.74563819 5 -3.2697165
1.2824035 5 -3.2565293
1.7834971 5 -3.2425807
2.0081296 5 -3.1974349
2.6022024 5 -3.1992676
3.2482846 5 -3.0972381
3.7219679 5 -3.4140463
4.6144414 5 -3.1449437
5.1207705 5 -3.1928339
5.5610251 5 -3.3942032
6.2777085 5 -3.3102362
6.9340358 5 -3.4633741
7.454814 5 -3.4428999
7.7474899 5 -3.2673728
8.12955 5 -3.2242661
8.6677294 5 -3.2886274
9.0207968 5 -3.4681287
10.609396 5 -3.0571785
11.599266 5 -3.0050235
12.251961 5 -3.1376169
12.999114 5 -3.1239705
13.168918 5 -3.095418
14.255153 5 -3.2869587
15.438519 5 -3.2539306
15.697634 5 -3.1076961
16.164757 5 -3.3667083
16.970608 5 -3.0968997
17.334244 5 -3.289588
17.785376 5 -3.1930683
18.40419 5 -3.2823246
18.666092 5 -3.1955838
19.166618 5 -3.4589584
19.934023 5 -3.1610181
20.44216 5 -3.3512528
20.782734 5 -3.386796
21.349527 5 -3.3873799
21.891661 5 -3.2454596
22.130981 5 -3.1982183
22.84523 5 -3.2273793
23.060892 5 -3.3160095
23.562349 5 -3.0642252
24.834255 5 -3.2599645
25.309729 5 -3.1552651
25.779749 5 -3.2213295
26.006306 5 -3.0684614
26.565289 5 -3.1827905
27.184158 5 -3.3350773
28.187447 5 -3.0542822
28.817841 5 -3.3881156
29.240734 5 -3.0938878
30.345753 5 -3.439651
31.16572 5 -3.2231379
31.685303 5 -3.3650193
32.720905 5 -3.1437535
33.19775 5 -3.445715
33.74577 5 -3.3582599
34.919464 5 -3.0820701
35.179123 5 -3.2663751
35.919689 5 -3.4777043
36.959179 5 -3.1378138
38.400902 5 -3.4577818
38.788773 5 -3.4343109
39.28141 5 -3.0200975
39.807278 5 -3.2805352
40.803513 5 -3.2124863
41.785759 5 -3.4519749
42.645851 5 -3.037405
43.33968 5 -3.1417301
43.912903 5 -3.3813729
44.882366 5 -3.0540965
45.478512 5 -3.3815207
45.56139 5 -3.4080806
47.339523 5 -3.3372254
49.20826 5 -3.3575475
49.805222 5 -3.1243
50.219913 5 -3.1720483
51.220249 5 -3.3723509
51.756958 5 -3.2925334
52.153214 5 -3.493984
52.670887 5 -3.2256932
53.207775 5 -3.2067702
53.631561 5 -3.2204058
54.294128 5 -3.1787453
55.364769 5 -3.4341016
56.188656 5 -3.4268787
57.735771 5 -3.2697847
58.640491 5 -3.1985185
59.171028 5 -3.3393035
59.871193 5 -3.4532781
60.443218 5 -3.225513
60.836239 5 -3.2274404
61.986965 5 -3.0739427
62.500996 5 -3.1490779
63.454807 5 -3.3546195
63.583237 5 -3.1899476
-64.801964 0.026240334 -2.8942966
-64.107811 0 -2.9450674
-63.746994 0 -2.8703699
-62.894611 0 -2.5848525
-62.470913 0 -2.985333
-61.969482 0 -2.9231396
-60.295433 0 -2.7269006
-59.661438 0 -2.823889
-59.179245 0 -2.8285003
-58.742428 0 -2.8698645
-57.814266 0 -2.7566676
-56.756817 0 -2.7398653
-56.454487 0 -2.6624267
-55.162636 0 -2.8238053
-54.748669 0 -2.796309
-54.140835 0 -2.6817038
-53.910053 0 -2.8773968
-53.41296 0 -2.9629889
-52.592312 0 -2.8027658
-52.073547 0 -2.6570373
-51.763771 0 -2.7101293
-51.286003 0 -2.8323286
-50.651703 0 -2.596122
-50.2841 0 -2.5794013
-49.822418 0 -2.9027948
-49.246391 0 -2.8046086
-48.069809 0 -2.6251862
-47.632313 0 -2.7236514
-47.303215 0 -2.6183343
-46.068657 0 -2.5965183
-45.873623 0 -2.5903068
-45.054783 0 -2.8436444
-44.3736 0 -2.847187
-43.787178 0 -2.7062459
-42.271729 0 -2.7390709
-41.720142 0 -2.8659804
-41.337654 0 -2.7994184
-40.685169 0 -2.5058124
-40.3111 0 -2.8359814
-39.883984 0 -2.6711395
-39.318947 0 -2.738575
-38.781368 0 -2.6390464
-38.067677 0 -2.8260503
-37.603527 0 -2.9553714
-37.292305 0 -2.8041019
-36.804996 0 -2.7875385
-36.157639 0 -2.8352404
-35.967453 0 -2.7888875
-35.039936 0 -2.8481588
-34.263783 0 -2.7397127
-33.739845 0 -2.5473862
-33.137871 0 -2.8238773
-32.069565 0 -2.6201415
-31.801971 0 -2.8769281
-30.25379 0 -2.7399235
-29.769989 0 -2.5238228
-28.682415 0 -2.9656634
-28.439648 0 -2.733727
-27.572838 0 -2.8614876
-27.44689 0 -2.638706
-26.931297 0 -2.9676561
-24.507135 0 -2.8279595
-24.369328 0 -2.8799148
-23.222488 0 -2.8164554
-22.702955 0 -2.6136687
-22.305756 0 -2.9108801
-21.525862 0 -2.8009315
-21.206919 0 -2.795085
-20.789618 0 -2.8356934
-19.337074 0 -2.8538857
-18.954365 0 -2.8810217
-18.31094 0 -2.7391813
-17.84071 0 -2.774231
-15.794496 0 -2.597156
-14.5961 0 -2.637291
-13.170158 0 -2.7296472
-12.338438 0 -2.6668787
-11.660353 0 -2.88375
-11.250816 0 -2.6368568
-10.674083 0 -2.8229303
-9.5376463 0 -2.6294646
-9.2354946 0 -2.8723707
-8.9492245 0 -2.9912548
-8.2163963 0 -2.7319074
-7.9607859 0 -2.7686398
-7.2516832 0 -2.658267
-6.6267481 0 -2.5725977
-6.2312927 0 -2.8619351
-5.6799202 0 -2.7136912
-5.2282944 0 -2.8578849
-4.2829018 0 -2.7337103
-3.2019165 0 -2.7780435
-2.4244626 0 -2.63954
-1.6869892 0 -2.8552904
-1.2480721 0 -2.7614963
-0.77562737 0 -2.5977941
0.16329059 0 -2.9384694
0.81060612 0 -2.6909785
1.1520251 0 -2.9539776
2.2762151 0 -2.775085
2.9896812 0 -2.9854579
3.1321361 0 -2.9454589
3.8280761 0 -2.7151597
5.145462 0 -2.8519428
5.8515396 0 -2.761549
6.3028207 0 -2.723809
6.7611003 0 -2.827122
7.0146484 0 -2.5918655
7.5433693 0 -2.5296597
8.3581581 0 -2.7122641
8.8135395 0 -2.6358964
9.2438402 0 -2.5820122
9.5039177 0 -2.5346527
10.167129 0 -2.7764695
11.705085 0 -2.5019403
12.418621 0 -2.7637331
13.330291 0 -2.8731453
13.750284 0 -2.5549693
14.49357 0 -2.7948318
14.848106 0 -2.9375381
15.488881 0 -2.655046
15.92837 0 -2.8630228
16.16983 0 -2.8551216
16.848318 0 -2.8043985
18.40761 0 -2.7756882
18.804502 0 -2.695657
19.25667 0 -2.8395057
19.845257 0 -2.7684908
20.43174 0 -2.8028851
20.677292 0 -2.6285007
21.13245 0 -2.5767965
22.168362 0 -2.7347367
23.062027 0 -2.8969152
23.835728 0 -2.6130147
24.125813 0 -2.6756725
24.537807 0 -2.8384829
25.148029 0 -2.5856686
25.726303 0 -2.6714125
26.707645 0 -2.7124715
27.425274 0 -2.9767427
28.079168 0 -2.7262795
29.76215 0 -2.5585115
30.290028 0 -2.7887814
30.7181 0 -2.5867631
32.383556 0 -2.8242574
32.640484 0 -2.8241181
33.24382 0 -2.5289998
33.607098 0 -2.5266097
34.426132 0 -2.5078433
35.751221 0 -2.6582599
36.151756 0 -2.8428047
36.858116 0 -2.9068084
38.232849 0 -2.6430178
39.068691 0 -2.7638788
39.834698 0 -2.865813
40.361259 0 -2.6870863
40.789639 0 -2.6717274
41.053299 0 -2.730289
41.614784 0 -2.9634445
42.602493 0 -2.7842906
43.171974 0 -2.9236517
43.921066 0 -2.598223
44.814213 0 -2.8892336
45.276581 0 -2.7358596
45.588062 0 -2.8266783
46.305225 0 -2.855886
46.92992 0 -2.6230621
47.285419 0 -2.5956638
47.916737 0 -2.7862644
48.441479 0 -2.7968712
48.707722 0 -2.6527741
49.513416 0 -2.6342742
50.277927 0 -2.9344642
51.000397 0 -2.6586332
52.47628 0 -2.8602622
52.663651 0 -2.8190532
53.364086 0 -2.6774726
53.839539 0 -2.6255136
54.323448 0 -2.7720013
54.774456 0 -2.6928098
55.20546 0 -2.7653348
55.912231 0 -2.6598151
57.627892 0 -2.9695482
58.92215 0 -2.6991131
59.385025 0 -2.7772775
59.748631 0 -2.550036
60.496094 0 -2.5217319
60.57093 0 -2.7971063
61.756275 0 -2.7825947
63.214985 0 -2.8458672
63.748039 0 -2.7340291
64.154579 0 -2.5562482
64.782532 0 -2.6859879
65 0.30763948 -2.7725959
-65 0.63561708 -2.7718818
65 0.61373395 -2.5324044
-65 1.1326324 -2.6193166
-65 2.2399325 -2.843802
65 2.0180159 -2.6452391
65 2.559773 -2.8110323
65 3.1247554 -2.5844665
-65 3.8592255 -2.5691035
65 3.5176406 -2.8895552
-65 4.4024076 -2.7076623
65 4.2099648 -2.7821212
65 4.6935067 -2.9498308
-64.839256 5 -2.7671833
-64.229118 5 -2.9863186
-63.042599 5 -2.7373869
-62.818718 5 -2.7098527
-61.660065 5 -2.8758879
-61.279488 5 -2.6017962
-60.744255 5 -2.7858238
-59.800812 5 -2.5345922
-59.173279 5 -2.6972172
-58.771042 5 -2.7692654
-58.273327 5 -2.6891236
-57.760185 5 -2.8679605
-57.084118 5 -2.6854355
-56.803925 5 -2.6373258
-56.169262 5 -2.9143701
-55.768677 5 -2.8679481
-55.108543 5 -2.6356585
-54.62672 5 -2.6656868
-53.610455 5 -2.7458632
-53.250454 5 -2.6836798
-52.676987 5 -2.5148165
-51.633896 5 -2.8084826
-51.316223 5 -2.7738588
-50.888706 5 -2.9703135
-50.418083 5 -2.5660505
-49.646545 5 -2.6009288
-49.367416 5 -2.8325772
-48.748188 5 -2.7919447
-48.291222 5 -2.7813063
-47.86454 5 -2.580462
-46.701378 5 -2.7377667
-46.024799 5 -2.9619992
-45.893852 5 -2.5361829
-44.932663 5 -2.7093062
-44.319981 5 -2.6802444
-42.845306 5 -2.8360047
-42.271027 5 -2.8693764
-41.951939 5 -2.967298
-40.687382 5 -2.889286
-39.15683 5 -2.8885834
-38.197842 5 -2.8795083
-37.860992 5 -2.5140104
-36.644989 5 -2.8318295
-35.918365 5 -2.7292261
-35.494316 5 -2.7573681
-34.947845 5 -2.8339138
-34.274113 5 -2.6289706
-33.617233 5 -2.7595034
-33.25349 5 -2.7315996
-31.678061 5 -2.6926575
-30.691097 5 -2.6611125
-30.317554 5 -2.6028607
-29.914093 5 -2.8686004
-29.222231 5 -2.7674656
-28.773952 5 -2.7895005
-28.466557 5 -2.5754123
-26.31105 5 -2.6995468
-25.647747 5 -2.7700086
-25.32165 5 -2.9961011
-24.860249 5 -2.8475621
-24.424086 5 -2.8391657
-23.836725 5 -2.6680222
-22.211498 5 -2.7905402
-21.603613 5 -2.8374815
-21.124182 5 -2.6032674
-20.867239 5 -2.7864845
-20.356668 5 -2.7403779
-19.854378 5 -2.9433672
-18.855434 5 -2.9708695
-18.312475 5 -2.7742527
-17.760798 5 -2.7390304
-17.457466 5 -2.7400105
-16.699703 5 -2.9635301
-15.814033 5 -2.6649535
-15.170232 5 -2.8040063
-14.847059 5 -2.7982368
-13.697074 5 -2.963259
-13.087599 5 -2.5757318
-12.815244 5 -2.6201615
-12.123551 5 -2.5403705
-11.626609 5 -2.9070473
-11.255108 5 -2.7423754
-10.568461 5 -2.7956333
-10.085884 5 -2.6253841
-9.7058735 5 -2.7097621
-9.2926159 5 -2.6690934
-8.8603907 5 -2.8401785
-8.2455854 5 -2.8382676
-7.8992295 5 -2.6216073
-6.837213 5 -2.8910649
-6.0188856 5 -2.6621454
